# .PCD v0.7 - Point Cloud Data file format
VERSION 0.7
FIELDS x y z
SIZE 4 4 4
TYPE F F F
COUNT 1 1 1
WIDTH 1154
HEIGHT 1
VIEWPOINT 0 0 0 1 0 0 0
POINTS 1154
DATA ascii
-0.1596427 -0.2032399 0.92531204
-0.15836045 -0.20323992 0.92531216
-0.15707818 -0.20323992 0.92531216
-0.1557959 -0.20323992 0.92531216
-0.15451361 -0.2032399 0.92531204
-0.15323134 -0.2032399 0.92531204
-0.15194908 -0.2032399 0.92531204
-0.1506668 -0.2032399 0.92531204
-0.14938453 -0.2032399 0.92531204
-0.14810225 -0.2032399 0.92531204
-0.14681999 -0.2032399 0.92531204
-0.14553772 -0.2032399 0.92531204
-0.14425544 -0.2032399 0.92531204
-0.14297317 -0.2032399 0.92531204
-0.14169091 -0.2032399 0.92531204
-0.14040865 -0.20323992 0.92531216
-0.15955523 -0.20184697 0.92480505
-0.15827365 -0.20184697 0.92480505
-0.15699211 -0.201847 0.92480516
-0.15571053 -0.201847 0.92480516
-0.15442894 -0.20184697 0.92480505
-0.15314738 -0.20184697 0.92480505
-0.15186581 -0.20184697 0.92480505
-0.15058425 -0.20184697 0.92480505
-0.14930268 -0.20184697 0.92480505
-0.14802112 -0.20184697 0.92480505
-0.14673954 -0.20184697 0.92480505
-0.14545797 -0.20184697 0.92480505
-0.14417641 -0.20184697 0.92480505
-0.14289483 -0.20184697 0.92480505
-0.14161327 -0.20184697 0.92480505
-0.14033172 -0.201847 0.92480516
-0.15946786 -0.20045558 0.92429864
-0.15818699 -0.20045558 0.92429864
-0.15690613 -0.20045558 0.92429864
-0.15562527 -0.20045561 0.92429876
-0.15434439 -0.20045558 0.92429864
-0.15306352 -0.20045558 0.92429864
-0.15178266 -0.20045558 0.92429864
-0.1505018 -0.20045559 0.9242987
-0.14922093 -0.20045559 0.9242987
-0.14794007 -0.20045559 0.9242987
-0.1466592 -0.20045559 0.9242987
-0.14537834 -0.20045559 0.9242987
-0.14409746 -0.20045559 0.9242987
-0.1428166 -0.20045559 0.9242987
-0.14153573 -0.20045559 0.9242987
-0.14025487 -0.20045559 0.9242987
-0.15938058 -0.19906572 0.92379284
-0.15810043 -0.19906572 0.92379284
-0.15682025 -0.19906572 0.92379284
-0.15554009 -0.19906572 0.92379284
-0.15425992 -0.19906572 0.92379284
-0.15297976 -0.19906572 0.92379284
-0.1516996 -0.19906572 0.92379284
-0.15041943 -0.19906572 0.92379284
-0.14913927 -0.19906572 0.92379284
-0.1478591 -0.19906572 0.92379284
-0.14657894 -0.19906572 0.92379284
-0.14529876 -0.19906572 0.92379284
-0.14401861 -0.19906572 0.92379284
-0.14273843 -0.19906572 0.92379284
-0.14145827 -0.19906572 0.92379284
-0.14017811 -0.19906572 0.92379284
-0.14027263 -0.20103589 0.93293571
-0.1592934 -0.19767736 0.92328751
-0.15801394 -0.19767736 0.92328751
-0.15673448 -0.19767736 0.92328751
-0.15545501 -0.19767736 0.92328751
-0.15417555 -0.19767736 0.92328751
-0.15289608 -0.19767736 0.92328751
-0.15161662 -0.19767736 0.92328751
-0.15033714 -0.19767736 0.92328751
-0.14905769 -0.19767736 0.92328751
-0.14777821 -0.19767736 0.92328751
-0.14649875 -0.19767736 0.92328751
-0.1452193 -0.19767736 0.92328751
-0.14393982 -0.19767736 0.92328751
-0.14266036 -0.19767736 0.92328751
-0.14138089 -0.19767736 0.92328751
-0.14013501 -0.19772474 0.92350882
-0.14024399 -0.19970226 0.93274522
-0.15920632 -0.19629052 0.92278272
-0.15792754 -0.19629052 0.92278272
-0.15664878 -0.19629052 0.92278272
-0.15537001 -0.19629052 0.92278272
-0.15409125 -0.19629052 0.92278272
-0.15281248 -0.19629052 0.92278272
-0.15153372 -0.19629052 0.92278272
-0.15025498 -0.19629054 0.92278284
-0.14897621 -0.19629054 0.92278284
-0.14769745 -0.19629054 0.92278284
-0.14641868 -0.19629054 0.92278284
-0.14513992 -0.19629054 0.92278284
-0.14386114 -0.19629054 0.92278284
-0.14258239 -0.19629054 0.92278284
-0.14130361 -0.19629054 0.92278284
-0.14010671 -0.19640529 0.92332226
-0.14021537 -0.19836922 0.9325549
-0.15911934 -0.19490521 0.92227858
-0.15784127 -0.19490521 0.92227858
-0.15656321 -0.19490521 0.92227858
-0.15528513 -0.19490521 0.92227858
-0.15400706 -0.19490521 0.92227858
-0.152729 -0.19490521 0.92227858
-0.15145093 -0.19490521 0.92227858
-0.15017287 -0.19490521 0.92227858
-0.1488948 -0.19490521 0.92227858
-0.14761673 -0.19490521 0.92227858
-0.14633867 -0.19490521 0.92227858
-0.1450606 -0.19490521 0.92227858
-0.14378253 -0.19490521 0.92227858
-0.14250447 -0.19490521 0.92227858
-0.1412264 -0.19490521 0.92227858
-0.1400784 -0.19508635 0.9231357
-0.14018676 -0.19703668 0.93236458
-0.15903243 -0.19352141 0.92177492
-0.15775508 -0.19352141 0.92177492
-0.1564777 -0.19352141 0.92177492
-0.15520033 -0.19352141 0.92177492
-0.15392296 -0.19352141 0.92177492
-0.1526456 -0.19352141 0.92177492
-0.15136823 -0.19352141 0.92177492
-0.15009086 -0.19352141 0.92177492
-0.14881349 -0.19352141 0.92177492
-0.14753611 -0.19352141 0.92177492
-0.14625876 -0.19352141 0.92177492
-0.14498138 -0.19352141 0.92177492
-0.14370401 -0.19352141 0.92177492
-0.14242664 -0.19352141 0.92177492
-0.14114927 -0.19352141 0.92177492
-0.1400501 -0.19376795 0.92294925
-0.14015816 -0.19570471 0.93217438
-0.14026843 -0.19768062 0.94158596
-0.15894565 -0.19213912 0.92127186
-0.15766898 -0.19213912 0.92127186
-0.15639231 -0.19213912 0.92127186
-0.15511563 -0.19213912 0.92127186
-0.15383896 -0.19213912 0.92127186
-0.15256229 -0.19213912 0.92127186
-0.15128562 -0.19213912 0.92127186
-0.15000895 -0.19213912 0.92127186
-0.14873227 -0.19213912 0.92127186
-0.1474556 -0.19213912 0.92127186
-0.14617893 -0.19213912 0.92127186
-0.14490226 -0.19213912 0.92127186
-0.14362559 -0.19213912 0.92127186
-0.14234892 -0.19213912 0.92127186
-0.14107224 -0.19213912 0.92127186
-0.14002182 -0.19245006 0.92276281
-0.14012957 -0.19437328 0.93198425
-0.14023954 -0.19633536 0.94139206
-0.15885895 -0.19075833 0.92076933
-0.15758297 -0.19075833 0.92076933
-0.156307 -0.19075833 0.92076933
-0.15503103 -0.19075833 0.92076933
-0.15375504 -0.19075833 0.92076933
-0.15247907 -0.19075833 0.92076933
-0.1512031 -0.19075833 0.92076933
-0.14992712 -0.19075833 0.92076933
-0.14865114 -0.19075833 0.92076933
-0.14737517 -0.19075833 0.92076933
-0.14609919 -0.19075833 0.92076933
-0.14482322 -0.19075833 0.92076933
-0.14354724 -0.19075833 0.92076933
-0.14227127 -0.19075833 0.92076933
-0.14099529 -0.19075833 0.92076933
-0.13999355 -0.19113275 0.92257661
-0.14010102 -0.19304241 0.93179429
-0.14021067 -0.19499066 0.94119829
-0.15877233 -0.18937905 0.92026728
-0.15749705 -0.18937905 0.92026728
-0.15622178 -0.18937905 0.92026728
-0.15494649 -0.18937905 0.92026728
-0.15367121 -0.18937905 0.92026728
-0.15239593 -0.18937905 0.92026728
-0.15112065 -0.18937905 0.92026728
-0.14984538 -0.18937905 0.92026728
-0.14857009 -0.18937905 0.92026728
-0.14729482 -0.18937905 0.92026728
-0.14601953 -0.18937905 0.92026728
-0.14474425 -0.18937905 0.92026728
-0.14346898 -0.18937905 0.92026728
-0.14219369 -0.18937905 0.92026728
-0.14091842 -0.18937905 0.92026728
-0.1399653 -0.18981594 0.92239034
-0.14007244 -0.19171205 0.93160427
-0.14018179 -0.19364648 0.9410044
-0.15868582 -0.18800128 0.91976589
-0.15741125 -0.18800128 0.91976589
-0.15613666 -0.18800128 0.91976589
-0.15486208 -0.18800128 0.91976589
-0.15358749 -0.18800128 0.91976589
-0.1523129 -0.18800128 0.91976589
-0.15103832 -0.18800128 0.91976589
-0.14976373 -0.18800128 0.91976589
-0.14848915 -0.18800128 0.91976589
-0.14721456 -0.18800128 0.91976589
-0.14593998 -0.18800128 0.91976589
-0.14466539 -0.18800128 0.91976589
-0.1433908 -0.18800128 0.91976589
-0.1421162 -0.18800126 0.91976577
-0.14084162 -0.18800126 0.91976577
-0.13993704 -0.18849967 0.9222042
-0.14004388 -0.19038224 0.93141437
-0.14015293 -0.19230285 0.94081068
-0.14026417 -0.19426258 0.95039827
-0.15987329 -0.186625 0.91926497
-0.15859941 -0.186625 0.91926497
-0.15732551 -0.186625 0.91926497
-0.15605162 -0.186625 0.91926497
-0.15477774 -0.186625 0.91926497
-0.15350384 -0.186625 0.91926497
-0.15222995 -0.186625 0.91926497
-0.15095606 -0.186625 0.91926497
-0.14968216 -0.186625 0.91926497
-0.14840828 -0.186625 0.91926497
-0.14713438 -0.186625 0.91926497
-0.14586049 -0.186625 0.91926497
-0.14458661 -0.186625 0.91926497
-0.14331271 -0.186625 0.91926497
-0.14203882 -0.186625 0.91926497
-0.14076494 -0.186625 0.91926497
-0.13990881 -0.18718392 0.92201805
-0.14001535 -0.18905297 0.93122452
-0.14012407 -0.19095978 0.94061697
-0.14023499 -0.19290541 0.95020062
-0.15980946 -0.1852771 0.91889793
-0.158545 -0.18528754 0.91894966
-0.15728039 -0.18529794 0.91900128
-0.15601565 -0.18530838 0.91905308
-0.15475075 -0.1853188 0.9191047
-0.1534857 -0.18532921 0.91915637
-0.15222055 -0.18533966 0.91920817
-0.1509552 -0.18535006 0.91925979
-0.14968975 -0.18536049 0.91931152
-0.14842415 -0.18537092 0.91936326
-0.1471584 -0.18538135 0.919415
-0.1458925 -0.18539178 0.91946667
-0.14462647 -0.18540223 0.91951847
-0.1433603 -0.18541266 0.91957021
-0.14209399 -0.18542309 0.919622
-0.14082752 -0.18543352 0.91967374
-0.13988057 -0.18586871 0.92183203
-0.13998681 -0.18772425 0.93103474
-0.14009523 -0.18961728 0.94042337
-0.14020588 -0.19154887 0.95000327
-0.15893169 -0.18446289 0.92119098
-0.15766402 -0.18447328 0.92124283
-0.15639621 -0.18448369 0.92129487
-0.15512824 -0.18449409 0.92134678
-0.15386014 -0.18450448 0.9213987
-0.1525919 -0.1845149 0.92145067
-0.15132351 -0.1845253 0.92150265
-0.15005498 -0.1845357 0.92155457
-0.14878632 -0.18454611 0.9216066
-0.1475175 -0.18455653 0.92165858
-0.14624853 -0.18456692 0.92171049
-0.14497945 -0.18457735 0.92176259
-0.14371018 -0.18458775 0.9218145
-0.14244081 -0.18459818 0.9218666
-0.14117128 -0.18460858 0.92191857
-0.13990159 -0.18461899 0.92197055
-0.13995829 -0.18639606 0.93084508
-0.1400664 -0.18827531 0.94022983
-0.14017671 -0.19019282 0.94980574
-0.14028928 -0.19214976 0.95957851
-0.15932025 -0.18363419 0.92344314
-0.15804949 -0.18364455 0.92349523
-0.1567786 -0.18365495 0.92354751
-0.15550756 -0.18366532 0.92359966
-0.15423639 -0.18367569 0.92365187
-0.15296507 -0.18368609 0.92370415
-0.1516936 -0.18369646 0.9237563
-0.15042198 -0.18370685 0.92380852
-0.14915024 -0.18371724 0.92386079
-0.14787833 -0.18372762 0.923913
-0.14660628 -0.18373801 0.92396522
-0.14533411 -0.18374841 0.92401749
-0.14406177 -0.18375878 0.9240697
-0.1427893 -0.1837692 0.92412204
-0.14151669 -0.18377958 0.92417431
-0.14024392 -0.18378997 0.92422652
-0.13992979 -0.18506843 0.93065548
-0.1400376 -0.1869339 0.94003642
-0.14014758 -0.18883735 0.94960833
-0.1402598 -0.19077992 0.95937699
-0.15971072 -0.18280143 0.92570633
-0.15843689 -0.1828118 0.92575884
-0.15716292 -0.18282217 0.92581135
-0.15588875 -0.18283249 0.92586362
-0.15461449 -0.18284287 0.92591619
-0.15334009 -0.18285324 0.92596871
-0.1520655 -0.18286358 0.92602104
-0.15079081 -0.18287395 0.92607361
-0.14951596 -0.18288432 0.92612612
-0.14824094 -0.18289468 0.92617851
-0.14696582 -0.18290505 0.92623109
-0.14569055 -0.18291543 0.92628366
-0.14441508 -0.18292576 0.92633599
-0.14313951 -0.18293615 0.92638856
-0.14186381 -0.18294655 0.92644119
-0.14058793 -0.18295689 0.92649359
-0.13990128 -0.18374132 0.93046594
-0.14000878 -0.18559302 0.939843
-0.14011846 -0.18748245 0.94941103
-0.14023036 -0.18941069 0.95917559
-0.15882617 -0.18197492 0.92803341
-0.15754908 -0.18198526 0.92808616
-0.15627183 -0.1819956 0.92813885
-0.15499444 -0.18200593 0.92819154
-0.15371694 -0.18201628 0.92824435
-0.15243925 -0.18202661 0.92829704
-0.15116142 -0.18203695 0.92834973
-0.14988346 -0.18204731 0.92840254
-0.14860535 -0.18205763 0.92845523
-0.1473271 -0.18206798 0.92850798
-0.14604869 -0.18207833 0.92856079
-0.14477015 -0.18208867 0.92861354
-0.14349146 -0.18209903 0.92866635
-0.14221261 -0.18210937 0.9287191
-0.14093363 -0.18211971 0.92877185
-0.1398728 -0.18241476 0.93027651
-0.13997999 -0.18425272 0.93964976
-0.14008935 -0.18612811 0.9492138
-0.14020094 -0.18804201 0.9589743
-0.15921736 -0.18113393 0.93031919
-0.15793715 -0.18114425 0.93037224
-0.1566568 -0.18115456 0.93042523
-0.15537627 -0.18116486 0.9304781
-0.15409562 -0.18117519 0.93053114
-0.15281484 -0.18118551 0.93058419
-0.15153386 -0.18119581 0.93063706
-0.15025277 -0.18120614 0.93069011
-0.14897156 -0.18121648 0.93074322
-0.14769015 -0.18122678 0.93079609
-0.14640863 -0.18123712 0.93084919
-0.14512697 -0.18124746 0.9309023
-0.14384514 -0.18125778 0.93095535
-0.14256316 -0.18126808 0.93100828
-0.14128105 -0.18127842 0.93106139
-0.13999879 -0.18128876 0.93111449
-0.1399512 -0.18291296 0.93945652
-0.14006026 -0.18477432 0.94901663
-0.14017151 -0.18667391 0.95877308
-0.14028512 -0.18861301 0.96873242
-0.15961051 -0.18028879 0.93261635
-0.15832716 -0.18029909 0.93266964
-0.15704365 -0.18030939 0.93272287
-0.15575999 -0.18031965 0.93277603
-0.15447621 -0.18032996 0.93282938
-0.15319227 -0.18034026 0.93288261
-0.15190817 -0.18035054 0.93293583
-0.15062393 -0.18036085 0.93298912
-0.14933956 -0.18037115 0.93304241
-0.14805502 -0.18038145 0.93309563
-0.14677034 -0.18039176 0.93314898
-0.14548552 -0.18040204 0.93320221
-0.14420056 -0.18041237 0.93325561
-0.14291544 -0.18042265 0.93330884
-0.14163017 -0.18043296 0.93336213
-0.14034477 -0.18044329 0.93341553
-0.13992244 -0.18157376 0.9392634
-0.14003116 -0.18342111 0.94881952
-0.14014211 -0.18530639 0.95857191
-0.14025539 -0.18723087 0.96852708
-0.15871908 -0.17944974 0.93497837
-0.15743242 -0.17945999 0.93503183
-0.15614562 -0.17947029 0.93508542
-0.15485868 -0.17948055 0.93513894
-0.15357156 -0.1794908 0.93519235
-0.15228431 -0.17950109 0.93524593
-0.15099692 -0.17951137 0.93529952
-0.14970937 -0.17952162 0.93535292
-0.14842169 -0.17953192 0.93540657
-0.14713386 -0.1795422 0.93546015
-0.14584586 -0.17955245 0.93551356
-0.14455773 -0.17956275 0.9355672
-0.14326946 -0.17957304 0.93562084
-0.14198102 -0.1795833 0.93567425
-0.14069246 -0.17959359 0.93572789
-0.13989368 -0.18023512 0.9390704
-0.1400021 -0.18206845 0.94862258
-0.14011273 -0.18393946 0.95837092
-0.14022566 -0.18584931 0.9683218
-0.15911295 -0.17859617 0.93729854
-0.15782313 -0.17860642 0.93735236
-0.15653314 -0.17861664 0.93740606
-0.15524302 -0.17862692 0.93745995
-0.15395275 -0.17863715 0.93751365
-0.15266232 -0.1786474 0.93756741
-0.15137176 -0.17865767 0.9376213
-0.15008104 -0.1786679 0.93767506
-0.14879017 -0.17867815 0.93772882
-0.14749916 -0.17868842 0.9377827
-0.146208 -0.17869867 0.93783653
-0.1449167 -0.17870894 0.93789041
-0.14362523 -0.17871918 0.93794417
-0.14233363 -0.17872944 0.937998
-0.14104189 -0.17873971 0.93805194
-0.13986494 -0.17889702 0.93887746
-0.13997304 -0.18071637 0.94842571
-0.14008334 -0.18257307 0.95816994
-0.14019594 -0.18446834 0.96811658
-0.15950878 -0.17773835 0.93963033
-0.15821576 -0.17774858 0.93968433
-0.15692259 -0.17775878 0.93973833
-0.15562929 -0.17776902 0.93979245
-0.15433583 -0.17777924 0.93984646
-0.1530422 -0.17778945 0.93990046
-0.15174846 -0.1777997 0.93995464
-0.15045455 -0.17780992 0.94000864
-0.14916049 -0.17782015 0.9400627
-0.14786629 -0.17783038 0.94011682
-0.14657193 -0.17784061 0.94017088
-0.14527744 -0.17785086 0.94022506
-0.14398278 -0.17786108 0.94027913
-0.14268798 -0.1778713 0.94033319
-0.14139304 -0.17788155 0.94038737
-0.14009793 -0.17789178 0.94044143
-0.13994399 -0.17936483 0.94822884
-0.14005396 -0.18120725 0.95796901
-0.14016625 -0.18308797 0.96791154
-0.14028083 -0.18500806 0.97806227
-0.15861036 -0.17688644 0.94202793
-0.157314 -0.17689665 0.94208229
-0.1560175 -0.17690687 0.9421367
-0.15472083 -0.17691706 0.942191
-0.15342399 -0.17692725 0.94224524
-0.15212706 -0.17693748 0.94229966
-0.15082993 -0.17694767 0.94235396
-0.14953266 -0.17695786 0.94240826
-0.14823526 -0.17696808 0.94246268
-0.1469377 -0.17697829 0.94251704
-0.14563999 -0.17698851 0.94257146
-0.14434212 -0.17699872 0.94262582
-0.1430441 -0.17700891 0.94268012
-0.14174595 -0.17701913 0.9427346
-0.14044763 -0.17702934 0.94278896
-0.13991494 -0.17801386 0.94803208
-0.1400246 -0.17984203 0.9577682
-0.14013655 -0.18170816 0.9677065
-0.14025082 -0.18361337 0.97785294
-0.15900695 -0.17602004 0.94438338
-0.15770735 -0.1760302 0.94443792
-0.15640762 -0.17604038 0.94449258
-0.15510774 -0.17605056 0.94454712
-0.1538077 -0.17606074 0.94460171
-0.15250753 -0.17607091 0.94465637
-0.15120718 -0.17608108 0.94471091
-0.14990668 -0.17609125 0.94476551
-0.14860606 -0.17610146 0.94482023
-0.14730527 -0.17611164 0.94487482
-0.14600435 -0.17612183 0.94492954
-0.14470325 -0.17613201 0.94498414
-0.143402 -0.17614219 0.94503874
-0.14210062 -0.17615238 0.94509345
-0.14079908 -0.17616257 0.94514811
-0.13988593 -0.17666346 0.94783545
-0.13999526 -0.17847736 0.95756745
-0.14010687 -0.18032895 0.96750158
-0.14022081 -0.18221931 0.97764373
-0.1594055 -0.17514926 0.94675052
-0.15810268 -0.17515939 0.9468053
-0.15679972 -0.17516956 0.94686025
-0.15549661 -0.17517972 0.94691521
-0.15419331 -0.17518985 0.94696993
-0.15288991 -0.17520002 0.94702488
-0.15158634 -0.17521018 0.94707984
-0.15028258 -0.17522031 0.94713455
-0.14897873 -0.17523049 0.94718957
-0.14767471 -0.17524065 0.94724452
-0.14637053 -0.17525081 0.94729948
-0.14506619 -0.17526095 0.94735426
-0.14376171 -0.17527112 0.94740927
-0.1424571 -0.1752813 0.94746429
-0.14115228 -0.17529143 0.94751906
-0.13985692 -0.17531361 0.94763887
-0.13996592 -0.17711328 0.95736682
-0.14007722 -0.17895032 0.96729678
-0.14019081 -0.18082581 0.97743458
-0.15980607 -0.17427412 0.94912964
-0.1585 -0.17428423 0.94918472
-0.15719379 -0.17429437 0.94923991
-0.15588741 -0.17430449 0.94929504
-0.15458089 -0.17431462 0.94935018
-0.15327421 -0.17432475 0.94940537
-0.15196738 -0.17433487 0.94946051
-0.1506604 -0.174345 0.94951564
-0.14935327 -0.17435513 0.94957089
-0.14804597 -0.17436527 0.94962603
-0.14673856 -0.17437541 0.94968128
-0.14543097 -0.17438555 0.94973648
-0.14412321 -0.17439567 0.94979161
-0.14281534 -0.17440583 0.94984692
-0.14150728 -0.17441595 0.94990206
-0.14019908 -0.17442608 0.94995725
-0.1399366 -0.17574976 0.95716625
-0.14004757 -0.17757228 0.96709204
-0.14016087 -0.17943299 0.97722584
-0.14027652 -0.18133307 0.98757398
-0.15889932 -0.17340465 0.95157605
-0.15758984 -0.17341475 0.95163149
-0.15628019 -0.17342485 0.95168692
-0.15497041 -0.17343497 0.95174241
-0.15366046 -0.17344508 0.9517979
-0.15235035 -0.17345516 0.95185322
-0.15104011 -0.17346527 0.95190871
-0.14972971 -0.1734754 0.95196426
-0.14841913 -0.17348547 0.95201957
-0.14710844 -0.17349559 0.95207512
-0.14579757 -0.17350571 0.95213062
-0.14448655 -0.1735158 0.95218599
-0.14317538 -0.17352591 0.95224154
-0.14186406 -0.17353605 0.95229709
-0.14055258 -0.17354614 0.95235246
-0.1399073 -0.17438681 0.9569658
-0.14001793 -0.17619482 0.96688735
-0.14013091 -0.17804071 0.97701693
-0.14024621 -0.17992564 0.9873606
-0.15930064 -0.17252061 0.95397937
-0.15798788 -0.1725307 0.95403516
-0.15667497 -0.17254078 0.95409095
-0.15536188 -0.17255086 0.95414662
-0.15404865 -0.17256095 0.95420241
-0.15273526 -0.17257102 0.95425808
-0.15142171 -0.17258108 0.95431376
-0.15010804 -0.17259118 0.9543696
-0.14879417 -0.17260125 0.95442528
-0.14748019 -0.17261134 0.95448112
-0.14616603 -0.17262141 0.9545368
-0.14485171 -0.17263149 0.95459253
-0.14353727 -0.17264159 0.95464838
-0.14222264 -0.17265168 0.95470411
-0.14090787 -0.17266175 0.95475984
-0.139878 -0.17302445 0.95676541
-0.1399883 -0.17481793 0.96668279
-0.14010094 -0.176649 0.97680801
-0.14021592 -0.1785188 0.98714727
-0.15970401 -0.17163213 0.95639503
-0.15838796 -0.17164218 0.95645112
-0.15707172 -0.17165221 0.95650703
-0.15575533 -0.17166226 0.956563
-0.15443881 -0.17167233 0.95661908
-0.15312211 -0.17168237 0.95667505
-0.15180527 -0.17169242 0.95673102
-0.15048827 -0.17170247 0.95678711
-0.14917111 -0.17171252 0.95684308
-0.14785382 -0.17172261 0.95689923
-0.14653635 -0.17173265 0.95695519
-0.14521873 -0.17174269 0.95701122
-0.14390096 -0.17175277 0.95706731
-0.14258304 -0.17176282 0.95712334
-0.14126495 -0.17177287 0.95717937
-0.13994673 -0.17178296 0.95723552
-0.13995869 -0.17344163 0.96647829
-0.14007099 -0.17525791 0.97659922
-0.14018562 -0.17711256 0.98693401
-0.15879007 -0.17074916 0.95887929
-0.15747049 -0.17075914 0.95893544
-0.1561508 -0.17076918 0.95899177
-0.15483096 -0.17077921 0.95904815
-0.15351094 -0.17078923 0.95910436
-0.15219077 -0.17079926 0.95916063
-0.15087046 -0.17080928 0.95921701
-0.14954998 -0.17081931 0.95927328
-0.14822936 -0.17082936 0.95932966
-0.14690857 -0.17083938 0.95938599
-0.14558762 -0.1708494 0.95944226
-0.14426653 -0.17085944 0.95949864
-0.14294527 -0.17086947 0.95955497
-0.14162387 -0.1708795 0.9596113
-0.1403023 -0.17088954 0.95966768
-0.1399291 -0.17206591 0.9662739
-0.14004107 -0.1738674 0.97639054
-0.14015535 -0.17570694 0.98672086
-0.14027213 -0.17758588 0.99727249
-0.1591942 -0.16985156 0.96131974
-0.15787132 -0.16986156 0.96137631
-0.15654829 -0.16987155 0.96143293
-0.1552251 -0.16988154 0.96148944
-0.15390174 -0.16989154 0.961546
-0.15257822 -0.16990152 0.96160251
-0.15125458 -0.16991153 0.96165919
-0.14993076 -0.16992153 0.96171576
-0.14860679 -0.16993155 0.96177244
-0.14728266 -0.16994153 0.96182901
-0.14595838 -0.16995153 0.96188557
-0.14463395 -0.16996154 0.96194226
-0.14330934 -0.16997156 0.96199888
-0.14198458 -0.16998154 0.96205544
-0.14065969 -0.16999157 0.96211219
-0.13989951 -0.17069079 0.96606958
-0.14001115 -0.1724775 0.97618192
-0.1401251 -0.17430195 0.98650795
-0.14024152 -0.17616545 0.99705487
-0.15960041 -0.16894938 0.96377265
-0.15827416 -0.16895933 0.96382946
-0.15694779 -0.16896932 0.96388638
-0.15562125 -0.16897929 0.96394324
-0.15429455 -0.16898927 0.96400017
-0.15296769 -0.16899924 0.96405703
-0.15164068 -0.16900921 0.96411395
-0.1503135 -0.16901918 0.96417081
-0.14898618 -0.16902916 0.96422774
-0.14765869 -0.16903913 0.9642846
-0.14633104 -0.1690491 0.96434152
-0.14500326 -0.1690591 0.9643985
-0.14367528 -0.16906907 0.96445537
-0.14234717 -0.16907904 0.96451223
-0.14101891 -0.16908903 0.96456927
-0.13986996 -0.16931626 0.96586549
-0.13998124 -0.17108819 0.97597349
-0.14009486 -0.17289756 0.9862951
-0.14021091 -0.17474562 0.99683732
-0.1586791 -0.16805255 0.96629536
-0.15734935 -0.16806251 0.96635258
-0.15601943 -0.16807243 0.96640968
-0.15468934 -0.16808236 0.96646678
-0.15335912 -0.16809231 0.96652395
-0.15202874 -0.16810225 0.96658117
-0.15069818 -0.16811219 0.96663833
-0.14936748 -0.16812214 0.96669555
-0.14803661 -0.16813208 0.96675271
-0.1467056 -0.16814204 0.96680987
-0.14537443 -0.16815199 0.96686715
-0.14404309 -0.16816193 0.96692431
-0.14271159 -0.16817187 0.96698147
-0.14137995 -0.16818185 0.96703881
-0.14004815 -0.16819179 0.96709597
-0.13995135 -0.16969946 0.97576505
-0.14006464 -0.17149377 0.98608226
-0.14018033 -0.17332642 0.99661988
-0.15908608 -0.16714108 0.96877372
-0.15775295 -0.167151 0.96883124
-0.15641963 -0.1671609 0.96888864
-0.15508617 -0.16717081 0.9689461
-0.15375257 -0.16718073 0.96900362
-0.15241879 -0.16719066 0.96906114
-0.15108484 -0.16720055 0.96911848
-0.14975075 -0.16721047 0.96917599
-0.1484165 -0.16722041 0.96923357
-0.14708208 -0.16723031 0.96929091
-0.14574751 -0.16724023 0.96934849
-0.1444128 -0.16725017 0.96940607
-0.14307788 -0.16726007 0.96946341
-0.14174286 -0.16726999 0.96952099
-0.14040767 -0.16727994 0.96957862
-0.13992147 -0.16831134 0.97555673
-0.14003441 -0.17009057 0.98586947
-0.14014976 -0.17190784 0.99640256
-0.14026763 -0.17376436 1.0071633
-0.15949519 -0.16622494 0.97126502
-0.15815865 -0.16623484 0.97132283
-0.15682192 -0.16624469 0.97138041
-0.15548506 -0.16625458 0.97143823
-0.15414803 -0.16626446 0.97149593
-0.15281084 -0.16627435 0.97155374
-0.15147349 -0.16628423 0.9716115
-0.15013599 -0.16629413 0.97166932
-0.14879833 -0.16630402 0.97172707
-0.14746051 -0.1663139 0.97178483
-0.14612253 -0.16632381 0.97184271
-0.14478439 -0.16633369 0.97190046
-0.14344609 -0.16634358 0.97195822
-0.14210764 -0.16635348 0.9720161
-0.140769 -0.16636337 0.97207391
-0.13989159 -0.16692379 0.97534847
-0.1400042 -0.16868798 0.9856568
-0.14011924 -0.17048991 0.99618554
-0.14023671 -0.17233068 1.0069413
-0.15856642 -0.16531393 0.97382712
-0.15722628 -0.16532376 0.97388512
-0.15588598 -0.16533361 0.97394311
-0.15454555 -0.16534348 0.97400123
-0.15320492 -0.16535333 0.97405922
-0.15186417 -0.16536321 0.9741174
-0.15052325 -0.16537307 0.97417551
-0.14918213 -0.16538291 0.97423345
-0.14784089 -0.16539277 0.97429162
-0.1464995 -0.16540265 0.9743498
-0.1451579 -0.16541249 0.97440773
-0.14381617 -0.16542237 0.97446591
-0.14247429 -0.16543224 0.97452408
-0.14113222 -0.16544208 0.97458208
-0.13986176 -0.16553687 0.97514039
-0.13997401 -0.16728601 0.98544425
-0.14008871 -0.16907257 0.99596846
-0.14020582 -0.17089763 1.0067195
-0.15897629 -0.16438825 0.97634435
-0.15763274 -0.16439809 0.97640276
-0.15628898 -0.16440788 0.97646093
-0.15494509 -0.16441771 0.97651935
-0.15360105 -0.16442756 0.97657782
-0.15225683 -0.16443738 0.97663611
-0.15091248 -0.16444722 0.97669458
-0.14956793 -0.16445705 0.97675294
-0.14822324 -0.16446687 0.97681129
-0.14687838 -0.16447671 0.9768697
-0.14553335 -0.16448654 0.97692811
-0.14418818 -0.16449636 0.97698647
-0.14284284 -0.16450621 0.97704494
-0.14149734 -0.16451605 0.97710335
-0.14015166 -0.16452587 0.97716171
-0.13994382 -0.16588463 0.98523176
-0.14005817 -0.16765584 0.99575138
-0.14017493 -0.16946521 1.0064977
-0.15938832 -0.1634578 0.97887474
-0.15804127 -0.16346759 0.97893333
-0.15669407 -0.16347738 0.97899193
-0.15534674 -0.16348718 0.9790507
-0.15399922 -0.16349697 0.97910929
-0.15265153 -0.16350676 0.97916794
-0.15130371 -0.16351657 0.97922665
-0.1499557 -0.16352636 0.9792853
-0.14860754 -0.16353615 0.97934395
-0.14725924 -0.16354597 0.97940272
-0.14591075 -0.16355577 0.97946143
-0.1445621 -0.16356556 0.97952008
-0.1432133 -0.16357538 0.97957885
-0.14186433 -0.16358519 0.97963756
-0.14051519 -0.16359499 0.97969627
-0.13991365 -0.16448386 0.98501933
-0.14002766 -0.16623972 0.99553442
-0.14014405 -0.16803342 1.006276
-0.14026307 -0.16986632 1.0172524
-0.15980245 -0.16252249 0.98141819
-0.15845194 -0.16253226 0.98147708
-0.15710127 -0.162542 0.98153597
-0.15575045 -0.16255179 0.98159504
-0.15439945 -0.16256154 0.98165393
-0.15304831 -0.16257133 0.981713
-0.15169701 -0.1625811 0.98177207
-0.15034552 -0.16259086 0.98183101
-0.14899388 -0.16260062 0.98188996
-0.14764209 -0.16261041 0.98194903
-0.14629011 -0.16262017 0.98200798
-0.14493798 -0.16262995 0.98206699
-0.1435857 -0.16263972 0.98212606
-0.14223324 -0.1626495 0.98218507
-0.14088061 -0.16265927 0.98224407
-0.1398835 -0.16308369 0.98480701
-0.13999715 -0.16482423 0.99531758
-0.1401132 -0.16660227 1.0060545
-0.14023183 -0.16841914 1.0170259
-0.15886477 -0.16159207 0.98403418
-0.15751061 -0.1616018 0.98409343
-0.15615629 -0.16161153 0.98415273
-0.1548018 -0.16162126 0.98421198
-0.15344715 -0.161631 0.98427135
-0.15209234 -0.16164073 0.98433059
-0.15073736 -0.16165046 0.98438984
-0.1493822 -0.16166019 0.98444909
-0.14802691 -0.16166995 0.98450851
-0.14667144 -0.16167969 0.98456776
-0.14531581 -0.16168942 0.98462707
-0.14396003 -0.16169918 0.98468649
-0.14260405 -0.16170891 0.98474574
-0.14124793 -0.16171865 0.98480505
-0.13989165 -0.16172841 0.98486447
-0.13996667 -0.16340935 0.9951008
-0.14008239 -0.16517177 1.0058333
-0.14020061 -0.16697259 1.0167996
-0.15927973 -0.16064693 0.98660451
-0.15792204 -0.16065663 0.98666406
-0.15656422 -0.16066635 0.98672372
-0.15520622 -0.16067605 0.98678327
-0.15384807 -0.16068576 0.98684293
-0.15248975 -0.16069548 0.98690259
-0.15113126 -0.16070518 0.9869622
-0.14977258 -0.16071488 0.98702174
-0.14841378 -0.1607246 0.98708147
-0.14705478 -0.1607343 0.98714101
-0.14569563 -0.160744 0.98720062
-0.14433633 -0.16075373 0.98726034
-0.14297684 -0.16076343 0.98731995
-0.14161719 -0.16077313 0.98737955
-0.1402574 -0.16078287 0.98743933
-0.13993618 -0.16199508 0.99488407
-0.14005156 -0.16374187 1.0056119
-0.14016943 -0.16552672 1.0165734
-0.14028989 -0.16735089 1.0277765
-0.15969689 -0.15969689 0.98918849
-0.15833569 -0.15970655 0.98924834
-0.15697433 -0.15971623 0.9893083
-0.15561278 -0.15972589 0.98936814
-0.1542511 -0.15973558 0.9894281
-0.15288922 -0.15974525 0.98948801
-0.15152718 -0.1597549 0.98954785
-0.15016499 -0.15976457 0.98960775
-0.14880264 -0.15977427 0.98966777
-0.14744012 -0.15978394 0.98972768
-0.14607742 -0.15979362 0.98978758
-0.14471458 -0.1598033 0.9898476
-0.14335155 -0.15981297 0.9899075
-0.14198837 -0.15982266 0.98996747
-0.14062501 -0.15983234 0.99002749
-0.13990572 -0.16058144 0.99466753
-0.14002073 -0.16231258 1.0053905
-0.14013825 -0.16408147 1.0163473
-0.14025834 -0.16588931 1.0275453
-0.15875146 -0.15875146 0.99184602
-0.15738656 -0.1587611 0.99190629
-0.15602146 -0.15877074 0.99196649
-0.15465622 -0.15878038 0.99202675
-0.15329079 -0.15879002 0.99208695
-0.15192521 -0.15879966 0.99214715
-0.15055947 -0.1588093 0.99220747
-0.14919357 -0.15881896 0.99226779
-0.14782746 -0.15882859 0.99232787
-0.14646123 -0.15883824 0.99238825
-0.14509484 -0.1588479 0.99244857
-0.14372824 -0.15885752 0.99250871
-0.14236151 -0.15886718 0.99256903
-0.14099461 -0.15887685 0.99262941
-0.13987526 -0.15916841 0.99445099
-0.13998993 -0.16088395 1.0051694
-0.1401071 -0.16263688 1.0161213
-0.14022681 -0.16442838 1.0273143
-0.15916942 -0.15779133 0.99445736
-0.15780094 -0.15780094 0.99451798
-0.15643232 -0.15781057 0.9945786
-0.1550635 -0.15782018 0.99463922
-0.1536945 -0.15782976 0.9946996
-0.15232535 -0.15783939 0.99476022
-0.15095602 -0.15784898 0.99482071
-0.14958654 -0.15785861 0.99488139
-0.14821687 -0.15786821 0.99494189
-0.14684705 -0.15787782 0.99500245
-0.14547709 -0.15788744 0.99506313
-0.14410692 -0.15789706 0.99512368
-0.1427366 -0.15790667 0.99518424
-0.14136611 -0.15791629 0.99524492
-0.13999546 -0.1579259 0.99530548
-0.13995914 -0.15945593 1.0049483
-0.14007592 -0.16119289 1.0158952
-0.1401953 -0.16296813 1.0270834
-0.15958962 -0.15682615 0.99708265
-0.15821755 -0.15683573 0.99714357
-0.1568453 -0.1568453 0.99720436
-0.1554729 -0.1568549 0.99726534
-0.15410033 -0.15686445 0.99732614
-0.15272757 -0.15687403 0.99738699
-0.15135466 -0.1568836 0.99744785
-0.14998159 -0.15689318 0.99750876
-0.14860836 -0.15690278 0.99756974
-0.14723492 -0.15691233 0.99763048
-0.14586134 -0.15692192 0.99769151
-0.1444876 -0.15693152 0.99775249
-0.14311366 -0.15694107 0.99781322
-0.14173959 -0.15695067 0.99787426
-0.14036535 -0.15696026 0.9979353
-0.13992837 -0.15802856 1.0047274
-0.14004479 -0.15974958 1.0156695
-0.14016379 -0.16150853 1.0268526
-0.14028545 -0.16330665 1.0382849
-0.15863635 -0.15586542 0.99978298
-0.15726049 -0.15587494 0.99984407
-0.15588449 -0.15588449 0.99990535
-0.15450829 -0.15589403 0.9999665
-0.15313193 -0.15590355 1.0000277
-0.15175542 -0.15591311 1.0000889
-0.15037875 -0.15592267 1.0001502
-0.14900187 -0.15593219 1.0002114
-0.14762485 -0.15594174 1.0002726
-0.14624766 -0.15595129 1.0003339
-0.14487028 -0.15596083 1.0003951
-0.14349276 -0.15597038 1.0004563
-0.14211506 -0.15597993 1.0005176
-0.14073719 -0.15598948 1.0005789
-0.1398976 -0.1566018 1.0045065
-0.14001366 -0.1583069 1.0154437
-0.14013228 -0.16004956 1.0266218
-0.14025357 -0.16183105 1.038049
-0.15905739 -0.15488994 1.0024365
-0.1576779 -0.15489943 1.0024979
-0.15629828 -0.15490896 1.0025595
-0.15491845 -0.15491845 1.0026209
-0.15353845 -0.15492794 1.0026824
-0.15215832 -0.15493748 1.0027441
-0.150778 -0.15494697 1.0028056
-0.14939751 -0.15495647 1.0028671
-0.14801684 -0.15496598 1.0029286
-0.14663601 -0.1549755 1.0029902
-0.14525501 -0.15498501 1.0030518
-0.14387383 -0.15499452 1.0031133
-0.1424925 -0.15500404 1.0031749
-0.141111 -0.15501356 1.0032365
-0.13986684 -0.15517566 1.0042856
-0.13998257 -0.15686488 1.0152181
-0.14010079 -0.15859126 1.0263911
-0.14022171 -0.16035612 1.0378132
-0.15948063 -0.15390925 1.0051039
-0.15809752 -0.15391873 1.0051658
-0.15671423 -0.15392821 1.0052277
-0.15533076 -0.15393765 1.0052894
-0.15394713 -0.15394713 1.0053513
-0.15256333 -0.15395661 1.0054132
-0.15117936 -0.15396608 1.005475
-0.14979525 -0.15397558 1.005537
-0.14841092 -0.15398502 1.0055988
-0.14702645 -0.15399452 1.0056608
-0.14564179 -0.15400399 1.0057226
-0.14425696 -0.15401347 1.0057845
-0.14287198 -0.15402296 1.0058465
-0.14148681 -0.15403244 1.0059084
-0.14010146 -0.15404192 1.0059702
-0.13995147 -0.15542348 1.0149926
-0.14006935 -0.15713364 1.0261607
-0.14018987 -0.15888186 1.0375775
-0.15851937 -0.15293279 1.0078479
-0.15713243 -0.15294223 1.0079101
-0.1557453 -0.15295166 1.0079722
-0.154358 -0.15296109 1.0080345
-0.15297054 -0.15297054 1.0080967
-0.15158288 -0.15297996 1.0081588
-0.15019508 -0.1529894 1.008221
-0.14880709 -0.15299885 1.0082833
-0.14741895 -0.1530083 1.0083455
-0.14603062 -0.15301773 1.0084077
-0.14464213 -0.15302718 1.0084699
-0.14325348 -0.15303664 1.0085323
-0.14186461 -0.15304606 1.0085944
-0.1404756 -0.1530555 1.0086566
-0.13992038 -0.15398273 1.0147672
-0.14003792 -0.15567668 1.0259305
-0.14015804 -0.15740827 1.037342
-0.14028092 -0.15917887 1.0490104
-0.15894349 -0.15194158 1.0105444
-0.15755287 -0.15195099 1.010607
-0.15616205 -0.15196037 1.0106695
-0.15477106 -0.15196978 1.0107319
-0.15337992 -0.15197918 1.0107945
-0.15198858 -0.15198858 1.010857
-0.15059708 -0.15199798 1.0109196
-0.1492054 -0.15200737 1.010982
-0.14781357 -0.1520168 1.0110447
-0.14642154 -0.15202619 1.0111072
-0.14502935 -0.15203561 1.0111698
-0.143637 -0.15204501 1.0112324
-0.14224446 -0.15205443 1.011295
-0.14085174 -0.15206382 1.0113574
-0.13988931 -0.15254262 1.0145419
-0.14000648 -0.15422034 1.0257002
-0.14012624 -0.15593535 1.0371065
-0.14024872 -0.15768896 1.0487696
-0.15936989 -0.15094504 1.0132554
-0.15797555 -0.15095443 1.0133183
-0.15658103 -0.15096378 1.0133811
-0.15518634 -0.15097314 1.0134439
-0.15379147 -0.1509825 1.0135068
-0.15239643 -0.15099186 1.0135696
-0.15100124 -0.15100124 1.0136327
-0.14960584 -0.15101059 1.0136954
-0.14821029 -0.15101996 1.0137583
-0.14681457 -0.15102935 1.0138212
-0.14541866 -0.15103871 1.0138841
-0.14402258 -0.15104808 1.013947
-0.14262635 -0.15105745 1.01401
-0.14122991 -0.15106681 1.0140728
-0.13985828 -0.15110317 1.0143168
-0.13997509 -0.15276468 1.0254701
-0.14009444 -0.1544631 1.0368712
-0.14021653 -0.15619975 1.0485289
-0.15979858 -0.14994316 1.015981
-0.15840051 -0.14995249 1.0160441
-0.15700227 -0.14996181 1.0161073
-0.15560386 -0.14997113 1.0161705
-0.15420526 -0.14998046 1.0162337
-0.15280649 -0.14998978 1.0162969
-0.15140757 -0.14999913 1.0163602
-0.15000845 -0.15000845 1.0164233
-0.14860918 -0.1500178 1.0164866
-0.1472097 -0.15002711 1.0165498
-0.14581007 -0.15003644 1.016613
-0.14441027 -0.15004578 1.0166763
-0.14301027 -0.15005511 1.0167395
-0.14161012 -0.15006445 1.0168028
-0.14020979 -0.1500738 1.0168661
-0.13994367 -0.15130967 1.0252401
-0.14006265 -0.1529915 1.0366359
-0.14018436 -0.15471123 1.0482883
-0.15882777 -0.14894515 1.0187848
-0.15742578 -0.14895442 1.0188482
-0.15602361 -0.14896372 1.0189117
-0.15462129 -0.14897302 1.0189754
-0.15321876 -0.1489823 1.0190388
-0.15181608 -0.1489916 1.0191025
-0.15041322 -0.1490009 1.019166
-0.14901018 -0.14901018 1.0192295
-0.14760697 -0.14901946 1.0192931
-0.14620356 -0.14902876 1.0193566
-0.14480002 -0.14903806 1.0194203
-0.14339629 -0.14904737 1.0194839
-0.14199236 -0.14905666 1.0195475
-0.14058828 -0.14906597 1.0196111
-0.13991229 -0.1498553 1.0250101
-0.14003089 -0.15152059 1.0364008
-0.1401522 -0.1532234 1.0480479
-0.15925734 -0.14793237 1.0215402
-0.15785158 -0.1479416 1.0216039
-0.15644565 -0.14795086 1.0216678
-0.15503955 -0.14796011 1.0217317
-0.15363327 -0.14796937 1.0217956
-0.15222682 -0.14797863 1.0218596
-0.15082018 -0.14798787 1.0219234
-0.14941336 -0.14799713 1.0219873
-0.14800639 -0.14800639 1.0220513
-0.14659922 -0.14801563 1.0221151
-0.14519189 -0.1480249 1.0221791
-0.14378437 -0.14803416 1.022243
-0.14237669 -0.14804342 1.022307
-0.14096883 -0.14805269 1.0223711
-0.1398809 -0.14840156 1.0247802
-0.13999918 -0.15005042 1.0361662
-0.14012006 -0.15173623 1.0478076
-0.15968923 -0.14691409 1.0243105
-0.15827967 -0.14692329 1.0243746
-0.15686996 -0.1469325 1.0244389
-0.15546007 -0.14694172 1.0245031
-0.15405001 -0.14695093 1.0245674
-0.15263978 -0.14696015 1.0246316
-0.15122935 -0.14696936 1.0246959
-0.14981873 -0.14697857 1.02476
-0.14840797 -0.1469878 1.0248244
-0.14699702 -0.14699702 1.0248886
-0.14558589 -0.14700624 1.024953
-0.14417459 -0.14701547 1.0250173
-0.14276309 -0.14702468 1.0250815
-0.14135145 -0.14703391 1.0251459
-0.13993959 -0.14704312 1.0252101
-0.13996744 -0.14858082 1.0359312
-0.14008795 -0.15024976 1.0475674
-0.15871012 -0.14589944 1.0271604
-0.15729658 -0.14590859 1.0272249
-0.15588291 -0.14591779 1.0272896
-0.15446901 -0.14592695 1.0273541
-0.15305498 -0.14593615 1.0274189
-0.15164074 -0.14594531 1.0274833
-0.15022632 -0.14595449 1.027548
-0.14881176 -0.14596368 1.0276127
-0.14739697 -0.14597285 1.0276772
-0.14598204 -0.14598204 1.0277419
-0.14456691 -0.14599121 1.0278065
-0.1431516 -0.14600039 1.0278711
-0.14173613 -0.14600958 1.0279359
-0.14032046 -0.14601876 1.0280005
-0.13993572 -0.14711191 1.0356964
-0.14005582 -0.14876395 1.0473272
-0.1591429 -0.14487 1.0299613
-0.15772556 -0.14487913 1.0300263
-0.15630804 -0.14488827 1.0300913
-0.15489031 -0.1448974 1.0301561
-0.15347245 -0.14490655 1.0302212
-0.15205437 -0.14491567 1.0302861
-0.15063614 -0.1449248 1.030351
-0.14921772 -0.14493397 1.0304161
-0.1477991 -0.14494309 1.030481
-0.14638035 -0.14495224 1.0305461
-0.14496139 -0.14496139 1.030611
-0.14354225 -0.14497052 1.030676
-0.14212292 -0.14497967 1.0307411
-0.14070342 -0.14498881 1.0308061
-0.13990399 -0.14564365 1.0354617
-0.14002374 -0.14727885 1.0470872
-0.15957807 -0.14383493 1.0327777
-0.15815686 -0.14384402 1.0328429
-0.15673549 -0.14385313 1.0329083
-0.15531394 -0.14386222 1.0329735
-0.1538922 -0.14387131 1.0330389
-0.15247029 -0.14388041 1.0331042
-0.15104817 -0.14388949 1.0331694
-0.14962591 -0.14389861 1.0332348
-0.14820346 -0.14390771 1.0333002
-0.14678082 -0.1439168 1.0333655
-0.145358 -0.14392591 1.0334308
-0.14393499 -0.14393499 1.0334961
-0.14251183 -0.14394411 1.0335616
-0.14108847 -0.1439532 1.0336269
-0.1398723 -0.14417607 1.0352271
-0.13999166 -0.14579442 1.0468473
-0.15859053 -0.14280322 1.0356749
-0.1571653 -0.1428123 1.0357407
-0.15573986 -0.14282134 1.0358063
-0.15431426 -0.14283042 1.0358721
-0.15288846 -0.14283946 1.0359377
-0.1514625 -0.14284851 1.0360034
-0.15003635 -0.14285757 1.036069
-0.14861001 -0.14286663 1.0361347
-0.14718349 -0.14287569 1.0362004
-0.1457568 -0.14288475 1.0362661
-0.14432992 -0.14289379 1.0363318
-0.14290287 -0.14290287 1.0363976
-0.14147563 -0.14291193 1.0364633
-0.14004824 -0.14292102 1.0365292
-0.13995959 -0.14431065 1.0466075
-0.15902658 -0.14175673 1.0385226
-0.15759747 -0.14176576 1.0385888
-0.15616813 -0.14177476 1.0386547
-0.15473865 -0.14178379 1.0387208
-0.15330894 -0.14179279 1.0387868
-0.15187909 -0.14180179 1.0388528
-0.15044905 -0.14181083 1.038919
-0.14901881 -0.14181982 1.0389849
-0.14758839 -0.14182884 1.0390509
-0.1461578 -0.14183787 1.0391171
-0.14472702 -0.14184688 1.0391831
-0.14329608 -0.14185591 1.0392493
-0.14186493 -0.14186493 1.0393153
-0.14043362 -0.14187396 1.0393815
-0.13992754 -0.14282759 1.0463679
-0.15946504 -0.14070445 1.041386
-0.158032 -0.14071342 1.0414524
-0.15659876 -0.14072239 1.0415188
-0.15516537 -0.14073138 1.0415853
-0.15373175 -0.14074033 1.0416516
-0.15229797 -0.14074931 1.041718
-0.15086402 -0.14075829 1.0417845
-0.14942986 -0.14076725 1.0418508
-0.14799552 -0.14077622 1.0419172
-0.14656101 -0.14078522 1.0419837
-0.14512631 -0.14079419 1.0420501
-0.14369144 -0.14080317 1.0421166
-0.14225636 -0.14081214 1.042183
-0.14082113 -0.14082113 1.0422496
-0.1398955 -0.14134519 1.0461283
-0.15846893 -0.13965528 1.0443319
-0.15703177 -0.1396642 1.0443987
-0.15559444 -0.13967314 1.0444655
-0.15415688 -0.13968205 1.0445322
-0.15271915 -0.13969098 1.0445989
-0.15128127 -0.13969992 1.0446658
-0.14984317 -0.13970886 1.0447326
-0.1484049 -0.13971779 1.0447993
-0.14696646 -0.13972673 1.0448662
-0.14552781 -0.13973565 1.044933
-0.14408898 -0.13974459 1.0449998
-0.14264998 -0.13975354 1.0450667
-0.14121079 -0.13976248 1.0451336
-0.13986349 -0.13986349 1.0458889
-0.15890832 -0.13859127 1.0472275
-0.1574672 -0.13860016 1.0472946
-0.15602589 -0.13860904 1.0473617
-0.15458438 -0.13861792 1.0474288
-0.15314271 -0.1386268 1.047496
-0.15170085 -0.13863571 1.0475632
-0.15025879 -0.13864459 1.0476303
-0.14881654 -0.13865347 1.0476974
-0.14737414 -0.13866237 1.0477647
-0.14593154 -0.13867126 1.0478319
-0.14448875 -0.13868016 1.0478991
-0.14304577 -0.13868904 1.0479662
-0.14160262 -0.13869795 1.0480336
-0.14015926 -0.13870683 1.0481007
